39.188875059	125.661465472	25.4
39.188875059	125.661402907	25.1
39.188875059	125.661340343	25.1
39.188921460	125.667534250	28.0
39.188921460	125.667471685	27.7
39.188921460	125.667409121	27.3
39.188921460	125.667346556	26.8
39.188921460	125.667283991	26.4
39.188921460	125.667221426	26.0
39.188921460	125.667158862	25.9
39.188921460	125.667096297	25.9
39.188921460	125.667033732	25.8
39.188921460	125.666971168	25.8
39.188921460	125.666908603	25.8
39.188921460	125.666846038	25.8
39.188921460	125.666783473	25.8
39.188921460	125.666720909	25.9
39.188921460	125.666658344	25.9
39.188921460	125.666595779	25.9
39.188921460	125.666533214	25.9
39.188921460	125.666470650	25.9
39.188921460	125.666408085	25.9
39.188921460	125.666345520	25.9
39.188921460	125.666282956	25.8
39.188921460	125.666220391	25.8
39.188921460	125.666157826	25.8
39.188921460	125.666095261	25.8
39.188921460	125.666032697	25.8
39.188921460	125.665970132	25.8
39.188921460	125.665907567	25.9
39.188921460	125.665845003	25.9
39.188921460	125.665782438	25.7
39.188921460	125.665719873	25.5
39.188921460	125.665657308	25.3
39.188921460	125.665594744	25.1
39.188921460	125.665532179	25.0
39.188921460	125.665469614	25.0
39.188921460	125.665407049	25.0
39.188921460	125.665344485	25.0
39.188921460	125.665281920	25.0
39.188921460	125.665219355	24.8
39.188921460	125.665156791	24.6
39.188921460	125.665094226	24.3
39.188921460	125.665031661	24.1
39.188921460	125.664969096	24.0
39.188921460	125.664906532	24.0
39.188921460	125.664843967	24.1
39.188921460	125.664781402	24.1
39.188921460	125.664718838	24.1
39.188921460	125.664656273	24.4
39.188921460	125.664593708	24.6
39.188921460	125.664531143	24.8
39.188921460	125.664468579	25.0
39.188921460	125.664406014	25.3
39.188921460	125.664343449	25.5
39.188921460	125.664280884	25.7
39.188921460	125.664218320	25.9
39.188921460	125.664155755	26.1
39.188921460	125.664093190	26.1
39.188921460	125.664030626	26.1
39.188921460	125.663968061	26.1
39.188921460	125.663905496	26.1
39.188921460	125.663842931	26.1
39.188921460	125.663780367	26.1
39.188921460	125.663717802	26.0
39.188921460	125.663655237	26.0
39.188921460	125.663592673	26.0
39.188921460	125.663530108	26.0
39.188921460	125.663467543	26.0
39.188921460	125.663404978	26.0
39.188921460	125.663342414	26.0
39.188921460	125.663279849	26.0
39.188921460	125.663217284	26.0
39.188921460	125.663154719	25.9
39.188921460	125.663092155	25.9
39.188921460	125.663029590	25.9
39.188921460	125.662967025	25.9
39.188921460	125.662904461	25.9
39.188921460	125.662841896	25.9
39.188921460	125.662779331	25.9
39.188921460	125.662716766	26.1
39.188921460	125.662654202	26.3
39.188921460	125.662591637	26.6
39.188921460	125.662529072	26.8
39.188921460	125.662466507	26.9
39.188921460	125.662403943	26.9
39.188921460	125.662341378	26.9
39.188921460	125.662278813	26.9
39.188921460	125.662216249	26.9
39.188921460	125.662153684	26.9
39.188921460	125.662091119	26.9
39.188921460	125.662028554	26.9
39.188921460	125.661965990	26.9
39.188921460	125.661903425	26.8
39.188921460	125.661840860	26.6
39.188921460	125.661778296	26.4
39.188921460	125.661715731	26.2
39.188921460	125.661653166	26.0
39.188921460	125.661590601	25.7
39.188921460	125.661528037	25.5
39.188921460	125.661465472	25.3
39.188921460	125.661402907	25.1
39.188921460	125.661340343	25.0
39.188967860	125.667534250	27.8
39.188967860	125.667471685	27.5
39.188967860	125.667409121	27.2
39.188967860	125.667346556	26.8
39.188967860	125.667283991	26.4
39.188967860	125.667221426	26.0
39.188967860	125.667158862	25.9
39.188967860	125.667096297	25.7
39.188967860	125.667033732	25.6
39.188967860	125.666971168	25.5
39.188967860	125.666908603	25.5
39.188967860	125.666846038	25.5
39.188967860	125.666783473	25.6
39.188967860	125.666720909	25.7
39.188967860	125.666658344	25.7
39.188967860	125.666595779	25.7
39.188967860	125.666533214	25.7
39.188967860	125.666470650	25.7
39.188967860	125.666408085	25.7
39.188967860	125.666345520	25.7
39.188967860	125.666282956	25.6
39.188967860	125.666220391	25.5
39.188967860	125.666157826	25.5
39.188967860	125.666095261	25.4
39.188967860	125.666032697	25.5
39.188967860	125.665970132	25.6
39.188967860	125.665907567	25.6
39.188967860	125.665845003	25.7
39.188967860	125.665782438	25.6
39.188967860	125.665719873	25.4
39.188967860	125.665657308	25.3
39.188967860	125.665594744	25.1
39.188967860	125.665532179	25.0
39.188967860	125.665469614	25.0
39.188967860	125.665407049	25.0
39.188967860	125.665344485	25.0
39.188967860	125.665281920	25.0
39.188967860	125.665219355	24.8
39.188967860	125.665156791	24.6
39.188967860	125.665094226	24.3
39.188967860	125.665031661	24.1
39.188967860	125.664969096	24.0
39.188967860	125.664906532	24.1
39.188967860	125.664843967	24.2
39.188967860	125.664781402	24.2
39.188967860	125.664718838	24.3
39.188967860	125.664656273	24.5
39.188967860	125.664593708	24.7
39.188967860	125.664531143	25.0
39.188967860	125.664468579	25.2
39.188967860	125.664406014	25.4
39.188967860	125.664343449	25.6
39.188967860	125.664280884	25.9
39.188967860	125.664218320	26.1
39.188967860	125.664155755	26.3
39.188967860	125.664093190	26.3
39.188967860	125.664030626	26.3
39.188967860	125.663968061	26.3
39.188967860	125.663905496	26.3
39.188967860	125.663842931	26.2
39.188967860	125.663780367	26.2
39.188967860	125.663717802	26.1
39.188967860	125.663655237	26.0
39.188967860	125.663592673	26.0
39.188967860	125.663530108	26.0
39.188967860	125.663467543	26.0
39.188967860	125.663404978	26.0
39.188967860	125.663342414	26.0
39.188967860	125.663279849	25.9
39.188967860	125.663217284	25.9
39.188967860	125.663154719	25.8
39.188967860	125.663092155	25.8
39.188967860	125.663029590	25.7
39.188967860	125.662967025	25.7
39.188967860	125.662904461	25.7
39.188967860	125.662841896	25.7
39.188967860	125.662779331	25.7
39.188967860	125.662716766	25.9
39.188967860	125.662654202	26.2
39.188967860	125.662591637	26.4
39.188967860	125.662529072	26.6
39.188967860	125.662466507	26.7
39.188967860	125.662403943	26.7
39.188967860	125.662341378	26.7
39.188967860	125.662278813	26.7
39.188967860	125.662216249	26.7
39.188967860	125.662153684	26.7
39.188967860	125.662091119	26.7
39.188967860	125.662028554	26.7
39.188967860	125.661965990	26.7
39.188967860	125.661903425	26.6
39.188967860	125.661840860	26.4
39.188967860	125.661778296	26.3
39.188967860	125.661715731	26.1
39.188967860	125.661653166	26.0
39.188967860	125.661590601	25.7
39.188967860	125.661528037	25.5
39.188967860	125.661465472	25.3
39.188967860	125.661402907	25.1
39.188967860	125.661340343	25.1
39.189014260	125.667534250	27.7
39.189014260	125.667471685	27.4
39.189014260	125.667409121	27.0
39.189014260	125.667346556	26.7
39.189014260	125.667283991	26.3
39.189014260	125.667221426	26.0
39.189014260	125.667158862	25.8
39.189014260	125.667096297	25.6
39.189014260	125.667033732	25.4
39.189014260	125.666971168	25.2
39.189014260	125.666908603	25.2
39.189014260	125.666846038	25.3
39.189014260	125.666783473	25.4
39.189014260	125.666720909	25.5
39.189014260	125.666658344	25.5
39.189014260	125.666595779	25.5
39.189014260	125.666533214	25.5
39.189014260	125.666470650	25.5
39.189014260	125.666408085	25.5
39.189014260	125.666345520	25.5
39.189014260	125.666282956	25.4
39.189014260	125.666220391	25.3
39.189014260	125.666157826	25.2
39.189014260	125.666095261	25.1
39.189014260	125.666032697	25.2
39.189014260	125.665970132	25.3
39.189014260	125.665907567	25.4
39.189014260	125.665845003	25.5
39.189014260	125.665782438	25.4
39.189014260	125.665719873	25.3
39.189014260	125.665657308	25.2
39.189014260	125.665594744	25.1
39.189014260	125.665532179	25.0
39.189014260	125.665469614	25.0
39.189014260	125.665407049	25.0
39.189014260	125.665344485	25.0
39.189014260	125.665281920	25.0
39.189014260	125.665219355	24.8
39.189014260	125.665156791	24.6
39.189014260	125.665094226	24.3
39.189014260	125.665031661	24.1
39.189014260	125.664969096	24.1
39.189014260	125.664906532	24.2
39.189014260	125.664843967	24.3
39.189014260	125.664781402	24.4
39.189014260	125.664718838	24.5
39.189014260	125.664656273	24.7
39.189014260	125.664593708	24.9
39.189014260	125.664531143	25.1
39.189014260	125.664468579	25.4
39.189014260	125.664406014	25.6
39.189014260	125.664343449	25.8
39.189014260	125.664280884	26.0
39.189014260	125.664218320	26.3
39.189014260	125.664155755	26.5
39.189014260	125.664093190	26.5
39.189014260	125.664030626	26.5
39.189014260	125.663968061	26.5
39.189014260	125.663905496	26.5
39.189014260	125.663842931	26.4
39.189014260	125.663780367	26.3
39.189014260	125.663717802	26.2
39.189014260	125.663655237	26.1
39.189014260	125.663592673	26.0
39.189014260	125.663530108	26.0
39.189014260	125.663467543	26.0
39.189014260	125.663404978	26.0
39.189014260	125.663342414	26.0
39.189014260	125.663279849	25.9
39.189014260	125.663217284	25.8
39.189014260	125.663154719	25.7
39.189014260	125.663092155	25.6
39.189014260	125.663029590	25.5
39.189014260	125.662967025	25.5
39.189014260	125.662904461	25.5
39.189014260	125.662841896	25.5
39.189014260	125.662779331	25.5
39.189014260	125.662716766	25.8
39.189014260	125.662654202	26.0
39.189014260	125.662591637	26.2
39.189014260	125.662529072	26.4
39.189014260	125.662466507	26.5
39.189014260	125.662403943	26.5
39.189014260	125.662341378	26.5
39.189014260	125.662278813	26.5
39.189014260	125.662216249	26.5
39.189014260	125.662153684	26.5
39.189014260	125.662091119	26.5
39.189014260	125.662028554	26.5
39.189014260	125.661965990	26.5
39.189014260	125.661903425	26.5
39.189014260	125.661840860	26.3
39.189014260	125.661778296	26.2
39.189014260	125.661715731	26.1
39.189014260	125.661653166	26.0
39.189014260	125.661590601	25.7
39.189014260	125.661528037	25.5
39.189014260	125.661465472	25.3
39.189014260	125.661402907	25.1
39.189014260	125.661340343	25.1
39.189060661	125.667534250	27.5
39.189060661	125.667471685	27.2
39.189060661	125.667409121	26.9
39.189060661	125.667346556	26.6
39.189060661	125.667283991	26.3
39.189060661	125.667221426	26.0
39.189060661	125.667158862	25.7
39.189060661	125.667096297	25.4
39.189060661	125.667033732	25.2
39.189060661	125.666971168	24.9
39.189060661	125.666908603	24.8
39.189060661	125.666846038	25.0
39.189060661	125.666783473	25.1
39.189060661	125.666720909	25.3
39.189060661	125.666658344	25.4
39.189060661	125.666595779	25.4
39.189060661	125.666533214	25.4
39.189060661	125.666470650	25.4
39.189060661	125.666408085	25.4
39.189060661	125.666345520	25.3
39.189060661	125.666282956	25.1
39.189060661	125.666220391	25.0
39.189060661	125.666157826	24.9
39.189060661	125.666095261	24.8
39.189060661	125.666032697	24.9
39.189060661	125.665970132	25.1
39.189060661	125.665907567	25.2
39.189060661	125.665845003	25.4
39.189060661	125.665782438	25.3
39.189060661	125.665719873	25.2
39.189060661	125.665657308	25.1
39.189060661	125.665594744	25.1
39.189060661	125.665532179	25.0
39.189060661	125.665469614	25.0
39.189060661	125.665407049	25.0
39.189060661	125.665344485	25.0
39.189060661	125.665281920	25.0
39.189060661	125.665219355	24.8
39.189060661	125.665156791	24.6
39.189060661	125.665094226	24.3
39.189060661	125.665031661	24.1
39.189060661	125.664969096	24.1
39.189060661	125.664906532	24.2
39.189060661	125.664843967	24.3
39.189060661	125.664781402	24.5
39.189060661	125.664718838	24.6
39.189060661	125.664656273	24.9
39.189060661	125.664593708	25.1
39.189060661	125.664531143	25.3
39.189060661	125.664468579	25.5
39.189060661	125.664406014	25.8
39.189060661	125.664343449	26.0
39.189060661	125.664280884	26.2
39.189060661	125.664218320	26.4
39.189060661	125.664155755	26.6
39.189060661	125.664093190	26.6
39.189060661	125.664030626	26.6
39.189060661	125.663968061	26.6
39.189060661	125.663905496	26.6
39.189060661	125.663842931	26.5
39.189060661	125.663780367	26.4
39.189060661	125.663717802	26.2
39.189060661	125.663655237	26.1
39.189060661	125.663592673	26.0
39.189060661	125.663530108	26.0
39.189060661	125.663467543	26.0
39.189060661	125.663404978	26.0
39.189060661	125.663342414	26.0
39.189060661	125.663279849	25.9
39.189060661	125.663217284	25.7
39.189060661	125.663154719	25.6
39.189060661	125.663092155	25.5
39.189060661	125.663029590	25.4
39.189060661	125.662967025	25.4
39.189060661	125.662904461	25.4
39.189060661	125.662841896	25.4
39.189060661	125.662779331	25.4
39.189060661	125.662716766	25.6
39.189060661	125.662654202	25.8
39.189060661	125.662591637	26.1
39.189060661	125.662529072	26.3
39.189060661	125.662466507	26.4
39.189060661	125.662403943	26.4
39.189060661	125.662341378	26.4
39.189060661	125.662278813	26.4
39.189060661	125.662216249	26.4
39.189060661	125.662153684	26.4
39.189060661	125.662091119	26.4
39.189060661	125.662028554	26.4
39.189060661	125.661965990	26.4
39.189060661	125.661903425	26.3
39.189060661	125.661840860	26.2
39.189060661	125.661778296	26.2
39.189060661	125.661715731	26.1
39.189060661	125.661653166	26.0
39.189060661	125.661590601	25.7
39.189060661	125.661528037	25.5
39.189060661	125.661465472	25.3
39.189060661	125.661402907	25.1
39.189060661	125.661340343	25.1
39.189107061	125.667534250	27.3
39.189107061	125.667471685	27.1
39.189107061	125.667409121	26.8
39.189107061	125.667346556	26.5
39.189107061	125.667283991	26.3
39.189107061	125.667221426	26.0
39.189107061	125.667158862	25.6
39.189107061	125.667096297	25.3
39.189107061	125.667033732	24.9
39.189107061	125.666971168	24.6
39.189107061	125.666908603	24.5
39.189107061	125.666846038	24.7
39.189107061	125.666783473	24.9
39.189107061	125.666720909	25.1
39.189107061	125.666658344	25.2
39.189107061	125.666595779	25.2
39.189107061	125.666533214	25.2
39.189107061	125.666470650	25.2
39.189107061	125.666408085	25.2
39.189107061	125.666345520	25.1
39.189107061	125.666282956	24.9
39.189107061	125.666220391	24.7
39.189107061	125.666157826	24.6
39.189107061	125.666095261	24.5
39.189107061	125.666032697	24.7
39.189107061	125.665970132	24.8
39.189107061	125.665907567	25.0
39.189107061	125.665845003	25.2
39.189107061	125.665782438	25.2
39.189107061	125.665719873	25.1
39.189107061	125.665657308	25.1
39.189107061	125.665594744	25.0
39.189107061	125.665532179	25.0
39.189107061	125.665469614	25.0
39.189107061	125.665407049	25.0
39.189107061	125.665344485	25.0
39.189107061	125.665281920	25.0
39.189107061	125.665219355	24.8
39.189107061	125.665156791	24.6
39.189107061	125.665094226	24.3
39.189107061	125.665031661	24.1
39.189107061	125.664969096	24.1
39.189107061	125.664906532	24.3
39.189107061	125.664843967	24.4
39.189107061	125.664781402	24.6
39.189107061	125.664718838	24.8
39.189107061	125.664656273	25.0
39.189107061	125.664593708	25.2
39.189107061	125.664531143	25.5
39.189107061	125.664468579	25.7
39.189107061	125.664406014	25.9
39.189107061	125.664343449	26.1
39.189107061	125.664280884	26.4
39.189107061	125.664218320	26.6
39.189107061	125.664155755	26.8
39.189107061	125.664093190	26.8
39.189107061	125.664030626	26.8
39.189107061	125.663968061	26.8
39.189107061	125.663905496	26.8
39.189107061	125.663842931	26.7
39.189107061	125.663780367	26.5
39.189107061	125.663717802	26.3
39.189107061	125.663655237	26.1
39.189107061	125.663592673	26.0
39.189107061	125.663530108	26.0
39.189107061	125.663467543	26.0
39.189107061	125.663404978	26.0
39.189107061	125.663342414	26.0
39.189107061	125.663279849	25.8
39.189107061	125.663217284	25.7
39.189107061	125.663154719	25.5
39.189107061	125.663092155	25.3
39.189107061	125.663029590	25.2
39.189107061	125.662967025	25.2
39.189107061	125.662904461	25.2
39.189107061	125.662841896	25.2
39.189107061	125.662779331	25.2
39.189107061	125.662716766	25.4
39.189107061	125.662654202	25.7
39.189107061	125.662591637	25.9
39.189107061	125.662529072	26.1
39.189107061	125.662466507	26.2
39.189107061	125.662403943	26.2
39.189107061	125.662341378	26.2
39.189107061	125.662278813	26.2
39.189107061	125.662216249	26.2
39.189107061	125.662153684	26.2
39.189107061	125.662091119	26.2
39.189107061	125.662028554	26.2
39.189107061	125.661965990	26.2
39.189107061	125.661903425	26.2
39.189107061	125.661840860	26.1
39.189107061	125.661778296	26.1
39.189107061	125.661715731	26.0
39.189107061	125.661653166	26.0
39.189107061	125.661590601	25.7
39.189107061	125.661528037	25.5
39.189107061	125.661465472	25.3
39.189107061	125.661402907	25.1
39.189107061	125.661340343	25.1
39.189153461	125.667534250	27.2
39.189153461	125.667471685	26.9
39.189153461	125.667409121	26.7
39.189153461	125.667346556	26.5
39.189153461	125.667283991	26.2
39.189153461	125.667221426	26.0
39.189153461	125.667158862	25.6
39.189153461	125.667096297	25.1
39.189153461	125.667033732	24.7
39.189153461	125.666971168	24.3
39.189153461	125.666908603	24.2
39.189153461	125.666846038	24.4
39.189153461	125.666783473	24.6
39.189153461	125.666720909	24.9
39.189153461	125.666658344	25.0
39.189153461	125.666595779	25.0
39.189153461	125.666533214	25.0
39.189153461	125.666470650	25.0
39.189153461	125.666408085	25.0
39.189153461	125.666345520	24.9
39.189153461	125.666282956	24.7
39.189153461	125.666220391	24.5
39.189153461	125.666157826	24.3
39.189153461	125.666095261	24.1
39.189153461	125.666032697	24.4
39.189153461	125.665970132	24.6
39.189153461	125.665907567	24.8
39.189153461	125.665845003	25.0
39.189153461	125.665782438	25.0
39.189153461	125.665719873	25.0
39.189153461	125.665657308	25.0
39.189153461	125.665594744	25.0
39.189153461	125.665532179	25.0
39.189153461	125.665469614	25.0
39.189153461	125.665407049	25.0
39.189153461	125.665344485	25.0
39.189153461	125.665281920	25.0
39.189153461	125.665219355	24.8
39.189153461	125.665156791	24.6
39.189153461	125.665094226	24.3
39.189153461	125.665031661	24.1
39.189153461	125.664969096	24.1
39.189153461	125.664906532	24.3
39.189153461	125.664843967	24.5
39.189153461	125.664781402	24.8
39.189153461	125.664718838	25.0
39.189153461	125.664656273	25.2
39.189153461	125.664593708	25.4
39.189153461	125.664531143	25.6
39.189153461	125.664468579	25.9
39.189153461	125.664406014	26.1
39.189153461	125.664343449	26.3
39.189153461	125.664280884	26.5
39.189153461	125.664218320	26.8
39.189153461	125.664155755	27.0
39.189153461	125.664093190	27.0
39.189153461	125.664030626	27.0
39.189153461	125.663968061	27.0
39.189153461	125.663905496	27.0
39.189153461	125.663842931	26.8
39.189153461	125.663780367	26.6
39.189153461	125.663717802	26.4
39.189153461	125.663655237	26.2
39.189153461	125.663592673	26.0
39.189153461	125.663530108	26.0
39.189153461	125.663467543	26.0
39.189153461	125.663404978	26.0
39.189153461	125.663342414	26.0
39.189153461	125.663279849	25.8
39.189153461	125.663217284	25.6
39.189153461	125.663154719	25.4
39.189153461	125.663092155	25.2
39.189153461	125.663029590	25.0
39.189153461	125.662967025	25.0
39.189153461	125.662904461	25.0
39.189153461	125.662841896	25.0
39.189153461	125.662779331	25.0
39.189153461	125.662716766	25.3
39.189153461	125.662654202	25.5
39.189153461	125.662591637	25.7
39.189153461	125.662529072	25.9
39.189153461	125.662466507	26.0
39.189153461	125.662403943	26.0
39.189153461	125.662341378	26.0
39.189153461	125.662278813	26.0
39.189153461	125.662216249	26.0
39.189153461	125.662153684	26.0
39.189153461	125.662091119	26.0
39.189153461	125.662028554	26.0
39.189153461	125.661965990	26.0
39.189153461	125.661903425	26.0
39.189153461	125.661840860	26.0
39.189153461	125.661778296	26.0
39.189153461	125.661715731	26.0
39.189153461	125.661653166	26.0
39.189153461	125.661590601	25.7
39.189153461	125.661528037	25.5
39.189153461	125.661465472	25.3
39.189153461	125.661402907	25.1
39.189153461	125.661340343	25.2
39.189199861	125.667534250	27.1
39.189199861	125.667471685	26.9
39.189199861	125.667409121	26.6
39.189199861	125.667346556	26.4
39.189199861	125.667283991	26.1
39.189199861	125.667221426	25.9
39.189199861	125.667158862	25.5
39.189199861	125.667096297	25.0
39.189199861	125.667033732	24.6
39.189199861	125.666971168	24.2
39.189199861	125.666908603	24.1
39.189199861	125.666846038	24.3
39.189199861	125.666783473	24.5
39.189199861	125.666720909	24.7
39.189199861	125.666658344	24.9
39.189199861	125.666595779	24.9
39.189199861	125.666533214	24.9
39.189199861	125.666470650	24.9
39.189199861	125.666408085	24.9
39.189199861	125.666345520	24.7
39.189199861	125.666282956	24.5
39.189199861	125.666220391	24.3
39.189199861	125.666157826	24.1
39.189199861	125.666095261	24.1
39.189199861	125.666032697	24.3
39.189199861	125.665970132	24.5
39.189199861	125.665907567	24.7
39.189199861	125.665845003	25.0
39.189199861	125.665782438	25.0
39.189199861	125.665719873	25.0
39.189199861	125.665657308	25.0
39.189199861	125.665594744	25.0
39.189199861	125.665532179	25.0
39.189199861	125.665469614	25.0
39.189199861	125.665407049	25.0
39.189199861	125.665344485	25.0
39.189199861	125.665281920	25.0
39.189199861	125.665219355	24.8
39.189199861	125.665156791	24.6
39.189199861	125.665094226	24.4
39.189199861	125.665031661	24.2
39.189199861	125.664969096	24.2
39.189199861	125.664906532	24.4
39.189199861	125.664843967	24.6
39.189199861	125.664781402	24.8
39.189199861	125.664718838	25.0
39.189199861	125.664656273	25.2
39.189199861	125.664593708	25.4
39.189199861	125.664531143	25.6
39.189199861	125.664468579	25.8
39.189199861	125.664406014	26.0
39.189199861	125.664343449	26.2
39.189199861	125.664280884	26.5
39.189199861	125.664218320	26.7
39.189199861	125.664155755	26.9
39.189199861	125.664093190	26.9
39.189199861	125.664030626	26.9
39.189199861	125.663968061	27.0
39.189199861	125.663905496	27.0
39.189199861	125.663842931	26.9
39.189199861	125.663780367	26.7
39.189199861	125.663717802	26.5
39.189199861	125.663655237	26.3
39.189199861	125.663592673	26.1
39.189199861	125.663530108	26.1
39.189199861	125.663467543	26.1
39.189199861	125.663404978	26.0
39.189199861	125.663342414	26.0
39.189199861	125.663279849	25.8
39.189199861	125.663217284	25.6
39.189199861	125.663154719	25.4
39.189199861	125.663092155	25.1
39.189199861	125.663029590	25.0
39.189199861	125.662967025	25.0
39.189199861	125.662904461	25.0
39.189199861	125.662841896	25.0
39.189199861	125.662779331	25.0
39.189199861	125.662716766	25.2
39.189199861	125.662654202	25.4
39.189199861	125.662591637	25.6
39.189199861	125.662529072	25.8
39.189199861	125.662466507	25.9
39.189199861	125.662403943	25.9
39.189199861	125.662341378	25.9
39.189199861	125.662278813	25.9
39.189199861	125.662216249	25.9
39.189199861	125.662153684	25.9
39.189199861	125.662091119	25.9
39.189199861	125.662028554	26.0
39.189199861	125.661965990	26.0
39.189199861	125.661903425	26.0
39.189199861	125.661840860	26.0
39.189199861	125.661778296	26.0
39.189199861	125.661715731	26.0
39.189199861	125.661653166	26.0
39.189199861	125.661590601	25.8
39.189199861	125.661528037	25.6
39.189199861	125.661465472	25.4
39.189199861	125.661402907	25.2
39.189199861	125.661340343	25.3
39.189246262	125.667534250	27.1
39.189246262	125.667471685	26.9
39.189246262	125.667409121	26.6
39.189246262	125.667346556	26.3
39.189246262	125.667283991	26.0
39.189246262	125.667221426	25.7
39.189246262	125.667158862	25.3
39.189246262	125.667096297	24.9
39.189246262	125.667033732	24.6
39.189246262	125.666971168	24.2
39.189246262	125.666908603	24.1
39.189246262	125.666846038	24.3
39.189246262	125.666783473	24.4
39.189246262	125.666720909	24.6
39.189246262	125.666658344	24.7
39.189246262	125.666595779	24.7
39.189246262	125.666533214	24.7
39.189246262	125.666470650	24.7
39.189246262	125.666408085	24.7
39.189246262	125.666345520	24.6
39.189246262	125.666282956	24.4
39.189246262	125.666220391	24.3
39.189246262	125.666157826	24.1
39.189246262	125.666095261	24.1
39.189246262	125.666032697	24.3
39.189246262	125.665970132	24.5
39.189246262	125.665907567	24.7
39.189246262	125.665845003	25.0
39.189246262	125.665782438	25.0
39.189246262	125.665719873	25.0
39.189246262	125.665657308	25.0
39.189246262	125.665594744	25.0
39.189246262	125.665532179	25.0
39.189246262	125.665469614	25.0
39.189246262	125.665407049	25.0
39.189246262	125.665344485	25.0
39.189246262	125.665281920	25.0
39.189246262	125.665219355	24.9
39.189246262	125.665156791	24.7
39.189246262	125.665094226	24.5
39.189246262	125.665031661	24.4
39.189246262	125.664969096	24.4
39.189246262	125.664906532	24.5
39.189246262	125.664843967	24.7
39.189246262	125.664781402	24.8
39.189246262	125.664718838	25.0
39.189246262	125.664656273	25.2
39.189246262	125.664593708	25.3
39.189246262	125.664531143	25.5
39.189246262	125.664468579	25.7
39.189246262	125.664406014	25.9
39.189246262	125.664343449	26.1
39.189246262	125.664280884	26.3
39.189246262	125.664218320	26.5
39.189246262	125.664155755	26.7
39.189246262	125.664093190	26.8
39.189246262	125.664030626	26.9
39.189246262	125.663968061	26.9
39.189246262	125.663905496	27.0
39.189246262	125.663842931	26.9
39.189246262	125.663780367	26.7
39.189246262	125.663717802	26.6
39.189246262	125.663655237	26.4
39.189246262	125.663592673	26.3
39.189246262	125.663530108	26.2
39.189246262	125.663467543	26.1
39.189246262	125.663404978	26.1
39.189246262	125.663342414	26.0
39.189246262	125.663279849	25.8
39.189246262	125.663217284	25.6
39.189246262	125.663154719	25.4
39.189246262	125.663092155	25.1
39.189246262	125.663029590	25.0
39.189246262	125.662967025	25.0
39.189246262	125.662904461	25.0
39.189246262	125.662841896	25.0
39.189246262	125.662779331	25.0
39.189246262	125.662716766	25.2
39.189246262	125.662654202	25.3
39.189246262	125.662591637	25.5
39.189246262	125.662529072	25.6
39.189246262	125.662466507	25.7
39.189246262	125.662403943	25.7
39.189246262	125.662341378	25.7
39.189246262	125.662278813	25.7
39.189246262	125.662216249	25.7
39.189246262	125.662153684	25.8
39.189246262	125.662091119	25.8
39.189246262	125.662028554	25.9
39.189246262	125.661965990	26.0
39.189246262	125.661903425	26.0
39.189246262	125.661840860	26.0
39.189246262	125.661778296	26.0
39.189246262	125.661715731	26.0
39.189246262	125.661653166	26.0
39.189246262	125.661590601	25.8
39.189246262	125.661528037	25.6
39.189246262	125.661465472	25.5
39.189246262	125.661402907	25.3
39.189246262	125.661340343	25.5
39.189292662	125.667534250	27.1
39.189292662	125.667471685	26.9
39.189292662	125.667409121	26.5
39.189292662	125.667346556	26.2
39.189292662	125.667283991	25.9
39.189292662	125.667221426	25.5
39.189292662	125.667158862	25.2
39.189292662	125.667096297	24.8
39.189292662	125.667033732	24.5
39.189292662	125.666971168	24.1
39.189292662	125.666908603	24.1
39.189292662	125.666846038	24.2
39.189292662	125.666783473	24.3
39.189292662	125.666720909	24.4
39.189292662	125.666658344	24.5
39.189292662	125.666595779	24.5
39.189292662	125.666533214	24.5
39.189292662	125.666470650	24.5
39.189292662	125.666408085	24.5
39.189292662	125.666345520	24.5
39.189292662	125.666282956	24.3
39.189292662	125.666220391	24.2
39.189292662	125.666157826	24.1
39.189292662	125.666095261	24.1
39.189292662	125.666032697	24.3
39.189292662	125.665970132	24.5
39.189292662	125.665907567	24.7
39.189292662	125.665845003	25.0
39.189292662	125.665782438	25.0
39.189292662	125.665719873	25.0
39.189292662	125.665657308	25.0
39.189292662	125.665594744	25.0
39.189292662	125.665532179	25.0
39.189292662	125.665469614	25.0
39.189292662	125.665407049	25.0
39.189292662	125.665344485	25.0
39.189292662	125.665281920	25.0
39.189292662	125.665219355	24.9
39.189292662	125.665156791	24.8
39.189292662	125.665094226	24.6
39.189292662	125.665031661	24.5
39.189292662	125.664969096	24.5
39.189292662	125.664906532	24.6
39.189292662	125.664843967	24.8
39.189292662	125.664781402	24.9
39.189292662	125.664718838	25.0
39.189292662	125.664656273	25.1
39.189292662	125.664593708	25.3
39.189292662	125.664531143	25.4
39.189292662	125.664468579	25.5
39.189292662	125.664406014	25.7
39.189292662	125.664343449	25.9
39.189292662	125.664280884	26.1
39.189292662	125.664218320	26.4
39.189292662	125.664155755	26.6
39.189292662	125.664093190	26.7
39.189292662	125.664030626	26.8
39.189292662	125.663968061	26.9
39.189292662	125.663905496	27.0
39.189292662	125.663842931	26.9
39.189292662	125.663780367	26.8
39.189292662	125.663717802	26.7
39.189292662	125.663655237	26.5
39.189292662	125.663592673	26.4
39.189292662	125.663530108	26.3
39.189292662	125.663467543	26.2
39.189292662	125.663404978	26.1
39.189292662	125.663342414	26.0
39.189292662	125.663279849	25.8
39.189292662	125.663217284	25.6
39.189292662	125.663154719	25.4
39.189292662	125.663092155	25.1
39.189292662	125.663029590	25.0
39.189292662	125.662967025	25.0
39.189292662	125.662904461	25.0
39.189292662	125.662841896	25.0
39.189292662	125.662779331	25.0
39.189292662	125.662716766	25.1
39.189292662	125.662654202	25.2
39.189292662	125.662591637	25.4
39.189292662	125.662529072	25.5
39.189292662	125.662466507	25.5
39.189292662	125.662403943	25.5
39.189292662	125.662341378	25.5
39.189292662	125.662278813	25.5
39.189292662	125.662216249	25.6
39.189292662	125.662153684	25.7
39.189292662	125.662091119	25.8
39.189292662	125.662028554	25.9
39.189292662	125.661965990	26.0
39.189292662	125.661903425	26.0
39.189292662	125.661840860	26.0
39.189292662	125.661778296	26.0
39.189292662	125.661715731	26.0
39.189292662	125.661653166	26.0
39.189292662	125.661590601	25.9
39.189292662	125.661528037	25.7
39.189292662	125.661465472	25.6
39.189292662	125.661402907	25.5
39.189292662	125.661340343	25.6
39.189339062	125.667534250	27.1
39.189339062	125.667471685	26.8
39.189339062	125.667409121	26.5
39.189339062	125.667346556	26.1
39.189339062	125.667283991	25.7
39.189339062	125.667221426	25.4
39.189339062	125.667158862	25.1
39.189339062	125.667096297	24.8
39.189339062	125.667033732	24.4
39.189339062	125.666971168	24.1
39.189339062	125.666908603	24.0
39.189339062	125.666846038	24.1
39.189339062	125.666783473	24.2
39.189339062	125.666720909	24.3
39.189339062	125.666658344	24.4
39.189339062	125.666595779	24.4
39.189339062	125.666533214	24.4
39.189339062	125.666470650	24.4
39.189339062	125.666408085	24.4
39.189339062	125.666345520	24.3
39.189339062	125.666282956	24.2
39.189339062	125.666220391	24.1
39.189339062	125.666157826	24.1
39.189339062	125.666095261	24.1
39.189339062	125.666032697	24.3
39.189339062	125.665970132	24.5
39.189339062	125.665907567	24.7
39.189339062	125.665845003	25.0
39.189339062	125.665782438	25.0
39.189339062	125.665719873	25.0
39.189339062	125.665657308	25.0
39.189339062	125.665594744	25.0
39.189339062	125.665532179	25.0
39.189339062	125.665469614	25.0
39.189339062	125.665407049	25.0
39.189339062	125.665344485	25.0
39.189339062	125.665281920	25.0
39.189339062	125.665219355	24.9
39.189339062	125.665156791	24.8
39.189339062	125.665094226	24.7
39.189339062	125.665031661	24.7
39.189339062	125.664969096	24.7
39.189339062	125.664906532	24.7
39.189339062	125.664843967	24.8
39.189339062	125.664781402	24.9
39.189339062	125.664718838	25.0
39.189339062	125.664656273	25.1
39.189339062	125.664593708	25.2
39.189339062	125.664531143	25.3
39.189339062	125.664468579	25.3
39.189339062	125.664406014	25.5
39.189339062	125.664343449	25.7
39.189339062	125.664280884	26.0
39.189339062	125.664218320	26.2
39.189339062	125.664155755	26.4
39.189339062	125.664093190	26.5
39.189339062	125.664030626	26.7
39.189339062	125.663968061	26.8
39.189339062	125.663905496	27.0
39.189339062	125.663842931	26.9
39.189339062	125.663780367	26.9
39.189339062	125.663717802	26.8
39.189339062	125.663655237	26.7
39.189339062	125.663592673	26.6
39.189339062	125.663530108	26.4
39.189339062	125.663467543	26.3
39.189339062	125.663404978	26.2
39.189339062	125.663342414	26.0
39.189339062	125.663279849	25.8
39.189339062	125.663217284	25.6
39.189339062	125.663154719	25.4
39.189339062	125.663092155	25.1
39.189339062	125.663029590	25.0
39.189339062	125.662967025	25.0
39.189339062	125.662904461	25.0
39.189339062	125.662841896	25.0
39.189339062	125.662779331	25.0
39.189339062	125.662716766	25.1
39.189339062	125.662654202	25.2
39.189339062	125.662591637	25.3
39.189339062	125.662529072	25.3
39.189339062	125.662466507	25.4
39.189339062	125.662403943	25.4
39.189339062	125.662341378	25.4
39.189339062	125.662278813	25.4
39.189339062	125.662216249	25.4
39.189339062	125.662153684	25.5
39.189339062	125.662091119	25.7
39.189339062	125.662028554	25.8
39.189339062	125.661965990	26.0
39.189339062	125.661903425	26.0
39.189339062	125.661840860	26.0
39.189339062	125.661778296	26.0
39.189339062	125.661715731	26.0
39.189339062	125.661653166	26.0
39.189339062	125.661590601	25.9
39.189339062	125.661528037	25.8
39.189339062	125.661465472	25.7
39.189339062	125.661402907	25.6
39.189339062	125.661340343	25.8
39.189385462	125.667534250	27.1
39.189385462	125.667471685	26.8
39.189385462	125.667409121	26.4
39.189385462	125.667346556	26.0
39.189385462	125.667283991	25.6
39.189385462	125.667221426	25.2
39.189385462	125.667158862	24.9
39.189385462	125.667096297	24.7
39.189385462	125.667033732	24.4
39.189385462	125.666971168	24.1
39.189385462	125.666908603	24.0
39.189385462	125.666846038	24.1
39.189385462	125.666783473	24.1
39.189385462	125.666720909	24.2
39.189385462	125.666658344	24.2
39.189385462	125.666595779	24.2
39.189385462	125.666533214	24.2
39.189385462	125.666470650	24.2
39.189385462	125.666408085	24.2
39.189385462	125.666345520	24.2
39.189385462	125.666282956	24.1
39.189385462	125.666220391	24.1
39.189385462	125.666157826	24.0
39.189385462	125.666095261	24.1
39.189385462	125.666032697	24.3
39.189385462	125.665970132	24.5
39.189385462	125.665907567	24.7
39.189385462	125.665845003	25.0
39.189385462	125.665782438	25.0
39.189385462	125.665719873	25.0
39.189385462	125.665657308	25.0
39.189385462	125.665594744	25.0
39.189385462	125.665532179	25.0
39.189385462	125.665469614	25.0
39.189385462	125.665407049	25.0
39.189385462	125.665344485	25.0
39.189385462	125.665281920	25.0
39.189385462	125.665219355	25.0
39.189385462	125.665156791	24.9
39.189385462	125.665094226	24.9
39.189385462	125.665031661	24.8
39.189385462	125.664969096	24.8
39.189385462	125.664906532	24.9
39.189385462	125.664843967	24.9
39.189385462	125.664781402	25.0
39.189385462	125.664718838	25.0
39.189385462	125.664656273	25.1
39.189385462	125.664593708	25.1
39.189385462	125.664531143	25.1
39.189385462	125.664468579	25.2
39.189385462	125.664406014	25.4
39.189385462	125.664343449	25.6
39.189385462	125.664280884	25.8
39.189385462	125.664218320	26.0
39.189385462	125.664155755	26.2
39.189385462	125.664093190	26.4
39.189385462	125.664030626	26.6
39.189385462	125.663968061	26.8
39.189385462	125.663905496	27.0
39.189385462	125.663842931	27.0
39.189385462	125.663780367	26.9
39.189385462	125.663717802	26.9
39.189385462	125.663655237	26.8
39.189385462	125.663592673	26.7
39.189385462	125.663530108	26.6
39.189385462	125.663467543	26.4
39.189385462	125.663404978	26.2
39.189385462	125.663342414	26.0
39.189385462	125.663279849	25.8
39.189385462	125.663217284	25.6
39.189385462	125.663154719	25.4
39.189385462	125.663092155	25.1
39.189385462	125.663029590	25.0
39.189385462	125.662967025	25.0
39.189385462	125.662904461	25.0
39.189385462	125.662841896	25.0
39.189385462	125.662779331	25.0
39.189385462	125.662716766	25.0
39.189385462	125.662654202	25.1
39.189385462	125.662591637	25.1
39.189385462	125.662529072	25.2
39.189385462	125.662466507	25.2
39.189385462	125.662403943	25.2
39.189385462	125.662341378	25.2
39.189385462	125.662278813	25.2
39.189385462	125.662216249	25.2
39.189385462	125.662153684	25.4
39.189385462	125.662091119	25.6
39.189385462	125.662028554	25.8
39.189385462	125.661965990	25.9
39.189385462	125.661903425	26.0
39.189385462	125.661840860	26.0
39.189385462	125.661778296	26.0
39.189385462	125.661715731	26.0
39.189385462	125.661653166	26.0
39.189385462	125.661590601	25.9
39.189385462	125.661528037	25.9
39.189385462	125.661465472	25.8
39.189385462	125.661402907	25.8
39.189385462	125.661340343	26.0
39.189431863	125.667534250	27.1
39.189431863	125.667471685	26.8
39.189431863	125.667409121	26.4
39.189431863	125.667346556	25.9
39.189431863	125.667283991	25.5
39.189431863	125.667221426	25.0
39.189431863	125.667158862	24.8
39.189431863	125.667096297	24.6
39.189431863	125.667033732	24.3
39.189431863	125.666971168	24.1
39.189431863	125.666908603	24.0
39.189431863	125.666846038	24.0
39.189431863	125.666783473	24.0
39.189431863	125.666720909	24.0
39.189431863	125.666658344	24.0
39.189431863	125.666595779	24.0
39.189431863	125.666533214	24.0
39.189431863	125.666470650	24.0
39.189431863	125.666408085	24.0
39.189431863	125.666345520	24.0
39.189431863	125.666282956	24.0
39.189431863	125.666220391	24.0
39.189431863	125.666157826	24.0
39.189431863	125.666095261	24.1
39.189431863	125.666032697	24.3
39.189431863	125.665970132	24.5
39.189431863	125.665907567	24.7
39.189431863	125.665845003	25.0
39.189431863	125.665782438	25.0
39.189431863	125.665719873	25.0
39.189431863	125.665657308	25.0
39.189431863	125.665594744	25.0
39.189431863	125.665532179	25.0
39.189431863	125.665469614	25.0
39.189431863	125.665407049	25.0
39.189431863	125.665344485	25.0
39.189431863	125.665281920	25.0
39.189431863	125.665219355	25.0
39.189431863	125.665156791	25.0
39.189431863	125.665094226	25.0
39.189431863	125.665031661	25.0
39.189431863	125.664969096	25.0
39.189431863	125.664906532	25.0
39.189431863	125.664843967	25.0
39.189431863	125.664781402	25.0
39.189431863	125.664718838	25.0
39.189431863	125.664656273	25.0
39.189431863	125.664593708	25.0
39.189431863	125.664531143	25.0
39.189431863	125.664468579	25.0
39.189431863	125.664406014	25.2
39.189431863	125.664343449	25.4
39.189431863	125.664280884	25.6
39.189431863	125.664218320	25.9
39.189431863	125.664155755	26.1
39.189431863	125.664093190	26.3
39.189431863	125.664030626	26.5
39.189431863	125.663968061	26.7
39.189431863	125.663905496	26.9
39.189431863	125.663842931	27.0
39.189431863	125.663780367	27.0
39.189431863	125.663717802	27.0
39.189431863	125.663655237	27.0
39.189431863	125.663592673	26.9
39.189431863	125.663530108	26.7
39.189431863	125.663467543	26.5
39.189431863	125.663404978	26.2
39.189431863	125.663342414	26.0
39.189431863	125.663279849	25.8
39.189431863	125.663217284	25.6
39.189431863	125.663154719	25.4
39.189431863	125.663092155	25.1
39.189431863	125.663029590	25.0
39.189431863	125.662967025	25.0
39.189431863	125.662904461	25.0
39.189431863	125.662841896	25.0
39.189431863	125.662779331	25.0
39.189431863	125.662716766	25.0
39.189431863	125.662654202	25.0
39.189431863	125.662591637	25.0
39.189431863	125.662529072	25.0
39.189431863	125.662466507	25.0
39.189431863	125.662403943	25.0
39.189431863	125.662341378	25.0
39.189431863	125.662278813	25.0
39.189431863	125.662216249	25.1
39.189431863	125.662153684	25.3
39.189431863	125.662091119	25.5
39.189431863	125.662028554	25.7
39.189431863	125.661965990	25.9
39.189431863	125.661903425	26.0
39.189431863	125.661840860	26.0
39.189431863	125.661778296	26.0
39.189431863	125.661715731	26.0
39.189431863	125.661653166	26.0
39.189431863	125.661590601	26.0
39.189431863	125.661528037	26.0
39.189431863	125.661465472	26.0
39.189431863	125.661402907	26.0
39.189431863	125.661340343	26.1
39.189478263	125.667534250	26.9
39.189478263	125.667471685	26.6
39.189478263	125.667409121	26.1
39.189478263	125.667346556	25.7
39.189478263	125.667283991	25.3
39.189478263	125.667221426	24.9
39.189478263	125.667158862	24.7
39.189478263	125.667096297	24.5
39.189478263	125.667033732	24.3
39.189478263	125.666971168	24.1
39.189478263	125.666908603	24.0
39.189478263	125.666846038	24.0
39.189478263	125.666783473	24.0
39.189478263	125.666720909	24.0
39.189478263	125.666658344	24.0
39.189478263	125.666595779	24.0
39.189478263	125.666533214	24.0
39.189478263	125.666470650	24.0
39.189478263	125.666408085	24.0
39.189478263	125.666345520	24.0
39.189478263	125.666282956	24.0
39.189478263	125.666220391	24.1
39.189478263	125.666157826	24.1
39.189478263	125.666095261	24.2
39.189478263	125.666032697	24.4
39.189478263	125.665970132	24.6
39.189478263	125.665907567	24.9
39.189478263	125.665845003	25.1
39.189478263	125.665782438	25.1
39.189478263	125.665719873	25.2
39.189478263	125.665657308	25.2
39.189478263	125.665594744	25.2
39.189478263	125.665532179	25.2
39.189478263	125.665469614	25.2
39.189478263	125.665407049	25.2
39.189478263	125.665344485	25.2
39.189478263	125.665281920	25.1
39.189478263	125.665219355	25.1
39.189478263	125.665156791	25.1
39.189478263	125.665094226	25.0
39.189478263	125.665031661	25.0
39.189478263	125.664969096	25.0
39.189478263	125.664906532	25.0
39.189478263	125.664843967	24.9
39.189478263	125.664781402	24.9
39.189478263	125.664718838	24.9
39.189478263	125.664656273	24.9
39.189478263	125.664593708	24.9
39.189478263	125.664531143	24.9
39.189478263	125.664468579	24.9
39.189478263	125.664406014	25.0
39.189478263	125.664343449	25.3
39.189478263	125.664280884	25.5
39.189478263	125.664218320	25.8
39.189478263	125.664155755	26.0
39.189478263	125.664093190	26.3
39.189478263	125.664030626	26.5
39.189478263	125.663968061	26.7
39.189478263	125.663905496	26.9
39.189478263	125.663842931	27.0
39.189478263	125.663780367	27.0
39.189478263	125.663717802	27.1
39.189478263	125.663655237	27.1
39.189478263	125.663592673	27.1
39.189478263	125.663530108	26.8
39.189478263	125.663467543	26.6
39.189478263	125.663404978	26.4
39.189478263	125.663342414	26.2
39.189478263	125.663279849	25.9
39.189478263	125.663217284	25.7
39.189478263	125.663154719	25.5
39.189478263	125.663092155	25.3
39.189478263	125.663029590	25.1
39.189478263	125.662967025	25.1
39.189478263	125.662904461	25.1
39.189478263	125.662841896	25.0
39.189478263	125.662779331	25.0
39.189478263	125.662716766	25.0
39.189478263	125.662654202	24.9
39.189478263	125.662591637	24.9
39.189478263	125.662529072	24.9
39.189478263	125.662466507	24.9
39.189478263	125.662403943	24.9
39.189478263	125.662341378	24.9
39.189478263	125.662278813	25.0
39.189478263	125.662216249	25.0
39.189478263	125.662153684	25.2
39.189478263	125.662091119	25.5
39.189478263	125.662028554	25.7
39.189478263	125.661965990	25.9
39.189478263	125.661903425	26.0
39.189478263	125.661840860	26.0
39.189478263	125.661778296	26.1
39.189478263	125.661715731	26.1
39.189478263	125.661653166	26.1
39.189478263	125.661590601	26.1
39.189478263	125.661528037	26.1
39.189478263	125.661465472	26.0
39.189478263	125.661402907	26.0
39.189478263	125.661340343	26.2
39.189524663	125.667534250	26.5
39.189524663	125.667471685	26.2
39.189524663	125.667409121	25.9
39.189524663	125.667346556	25.5
39.189524663	125.667283991	25.1
39.189524663	125.667221426	24.7
39.189524663	125.667158862	24.5
39.189524663	125.667096297	24.4
39.189524663	125.667033732	24.2
39.189524663	125.666971168	24.1
39.189524663	125.666908603	24.0
39.189524663	125.666846038	24.0
39.189524663	125.666783473	24.0
39.189524663	125.666720909	24.0
39.189524663	125.666658344	24.0
39.189524663	125.666595779	24.0
39.189524663	125.666533214	24.0
39.189524663	125.666470650	24.0
39.189524663	125.666408085	24.0
39.189524663	125.666345520	24.0
39.189524663	125.666282956	24.1
39.189524663	125.666220391	24.2
39.189524663	125.666157826	24.2
39.189524663	125.666095261	24.3
39.189524663	125.666032697	24.6
39.189524663	125.665970132	24.8
39.189524663	125.665907567	25.0
39.189524663	125.665845003	25.2
39.189524663	125.665782438	25.3
39.189524663	125.665719873	25.4
39.189524663	125.665657308	25.5
39.189524663	125.665594744	25.5
39.189524663	125.665532179	25.6
39.189524663	125.665469614	25.5
39.189524663	125.665407049	25.4
39.189524663	125.665344485	25.4
39.189524663	125.665281920	25.3
39.189524663	125.665219355	25.2
39.189524663	125.665156791	25.2
39.189524663	125.665094226	25.1
39.189524663	125.665031661	25.0
39.189524663	125.664969096	25.0
39.189524663	125.664906532	24.9
39.189524663	125.664843967	24.8
39.189524663	125.664781402	24.8
39.189524663	125.664718838	24.7
39.189524663	125.664656273	24.7
39.189524663	125.664593708	24.7
39.189524663	125.664531143	24.7
39.189524663	125.664468579	24.7
39.189524663	125.664406014	24.9
39.189524663	125.664343449	25.2
39.189524663	125.664280884	25.5
39.189524663	125.664218320	25.8
39.189524663	125.664155755	26.0
39.189524663	125.664093190	26.3
39.189524663	125.664030626	26.5
39.189524663	125.663968061	26.7
39.189524663	125.663905496	26.9
39.189524663	125.663842931	27.0
39.189524663	125.663780367	27.1
39.189524663	125.663717802	27.2
39.189524663	125.663655237	27.2
39.189524663	125.663592673	27.2
39.189524663	125.663530108	27.0
39.189524663	125.663467543	26.8
39.189524663	125.663404978	26.5
39.189524663	125.663342414	26.3
39.189524663	125.663279849	26.1
39.189524663	125.663217284	25.9
39.189524663	125.663154719	25.6
39.189524663	125.663092155	25.4
39.189524663	125.663029590	25.3
39.189524663	125.662967025	25.2
39.189524663	125.662904461	25.1
39.189524663	125.662841896	25.1
39.189524663	125.662779331	25.0
39.189524663	125.662716766	24.9
39.189524663	125.662654202	24.9
39.189524663	125.662591637	24.8
39.189524663	125.662529072	24.7
39.189524663	125.662466507	24.7
39.189524663	125.662403943	24.8
39.189524663	125.662341378	24.9
39.189524663	125.662278813	24.9
39.189524663	125.662216249	25.0
39.189524663	125.662153684	25.2
39.189524663	125.662091119	25.5
39.189524663	125.662028554	25.7
39.189524663	125.661965990	25.9
39.189524663	125.661903425	26.0
39.189524663	125.661840860	26.1
39.189524663	125.661778296	26.2
39.189524663	125.661715731	26.2
39.189524663	125.661653166	26.3
39.189524663	125.661590601	26.2
39.189524663	125.661528037	26.1
39.189524663	125.661465472	26.1
39.189524663	125.661402907	26.0
39.189524663	125.661340343	26.1
39.189571064	125.667534250	26.2
39.189571064	125.667471685	25.9
39.189571064	125.667409121	25.6
39.189571064	125.667346556	25.2
39.189571064	125.667283991	24.9
39.189571064	125.667221426	24.5
39.189571064	125.667158862	24.4
39.189571064	125.667096297	24.3
39.189571064	125.667033732	24.2
39.189571064	125.666971168	24.1
39.189571064	125.666908603	24.0
39.189571064	125.666846038	24.0
39.189571064	125.666783473	24.0
39.189571064	125.666720909	24.0
39.189571064	125.666658344	24.0
39.189571064	125.666595779	24.0
39.189571064	125.666533214	24.0
39.189571064	125.666470650	24.0
39.189571064	125.666408085	24.0
39.189571064	125.666345520	24.1
39.189571064	125.666282956	24.2
39.189571064	125.666220391	24.3
39.189571064	125.666157826	24.4
39.189571064	125.666095261	24.5
39.189571064	125.666032697	24.7
39.189571064	125.665970132	25.0
39.189571064	125.665907567	25.2
39.189571064	125.665845003	25.4
39.189571064	125.665782438	25.5
39.189571064	125.665719873	25.6
39.189571064	125.665657308	25.7
39.189571064	125.665594744	25.8
39.189571064	125.665532179	25.9
39.189571064	125.665469614	25.8
39.189571064	125.665407049	25.7
39.189571064	125.665344485	25.6
39.189571064	125.665281920	25.5
39.189571064	125.665219355	25.4
39.189571064	125.665156791	25.3
39.189571064	125.665094226	25.2
39.189571064	125.665031661	25.1
39.189571064	125.664969096	24.9
39.189571064	125.664906532	24.8
39.189571064	125.664843967	24.7
39.189571064	125.664781402	24.6
39.189571064	125.664718838	24.5
39.189571064	125.664656273	24.5
39.189571064	125.664593708	24.5
39.189571064	125.664531143	24.5
39.189571064	125.664468579	24.5
39.189571064	125.664406014	24.7
39.189571064	125.664343449	25.1
39.189571064	125.664280884	25.4
39.189571064	125.664218320	25.7
39.189571064	125.664155755	26.0
39.189571064	125.664093190	26.3
39.189571064	125.664030626	26.5
39.189571064	125.663968061	26.7
39.189571064	125.663905496	26.9
39.189571064	125.663842931	27.1
39.189571064	125.663780367	27.2
39.189571064	125.663717802	27.3
39.189571064	125.663655237	27.4
39.189571064	125.663592673	27.4
39.189571064	125.663530108	27.2
39.189571064	125.663467543	26.9
39.189571064	125.663404978	26.7
39.189571064	125.663342414	26.5
39.189571064	125.663279849	26.3
39.189571064	125.663217284	26.0
39.189571064	125.663154719	25.8
39.189571064	125.663092155	25.6
39.189571064	125.663029590	25.4
39.189571064	125.662967025	25.3
39.189571064	125.662904461	25.2
39.189571064	125.662841896	25.1
39.189571064	125.662779331	25.0
39.189571064	125.662716766	24.9
39.189571064	125.662654202	24.8
39.189571064	125.662591637	24.7
39.189571064	125.662529072	24.6
39.189571064	125.662466507	24.6
39.189571064	125.662403943	24.7
39.189571064	125.662341378	24.8
39.189571064	125.662278813	24.9
39.189571064	125.662216249	25.0
39.189571064	125.662153684	25.2
39.189571064	125.662091119	25.5
39.189571064	125.662028554	25.7
39.189571064	125.661965990	25.9
39.189571064	125.661903425	26.1
39.189571064	125.661840860	26.2
39.189571064	125.661778296	26.3
39.189571064	125.661715731	26.4
39.189571064	125.661653166	26.4
39.189571064	125.661590601	26.3
39.189571064	125.661528037	26.2
